111228.0,239940.0,12740.0,0
111320.0,240214.0,12651.0,0
111405.0,240467.0,12608.0,0
111469.0,240659.0,12680.0,0
111576.0,240977.0,12531.0,0
111649.0,241195.0,12566.0,0
111703.0,241358.0,12696.0,0
111800.0,241647.0,12617.0,0
111907.0,241964.0,12500.0,0
111970.0,242153.0,12595.0,0
112053.0,242400.0,12601.0,0
112156.0,242707.0,12520.0,0
112214.0,242880.0,12647.0,0
112303.0,243146.0,12637.0,0
112423.0,243502.0,12502.0,0
112496.0,243721.0,12572.0,0
112557.0,243905.0,12693.0,0
112687.0,244291.0,12538.0,0
112778.0,244563.0,12546.0,0
112874.0,244848.0,12541.0,0
112994.0,245206.0,12448.0,0
113048.0,245368.0,12613.0,0
113157.0,245693.0,12574.0,0
113265.0,246013.0,12546.0,0
113377.0,246348.0,12508.0,0
113488.0,246678.0,12481.0,0
113567.0,246915.0,12571.0,0
113672.0,247229.0,12575.0,0
113754.0,247473.0,12663.0,0
113888.0,247873.0,12581.0,0
114113.0,248540.0,12217.0,0
114336.0,249201.0,11878.0,0
114601.0,249990.0,11423.0,0
114916.0,250924.0,10840.0,0
115262.0,251950.0,10190.0,0
115682.0,253195.0,9352.0,0
116180.0,254672.0,8323.0,0
116637.0,256026.0,7455.0,0
117164.0,257588.0,6429.0,0
85242.0,62601.0,-412.0,0
91049.0,84524.0,7801.0,0
91446.0,86050.0,7797.0,0
91795.0,87393.0,7741.0,0
92062.0,88431.0,7573.0,0
92254.0,89185.0,7292.0,0
92423.0,89850.0,6982.0,0
92576.0,90455.0,6652.0,0
92713.0,91000.0,6301.0,0
92906.0,91755.0,6062.0,0
93042.0,92294.0,5724.0,0
93189.0,92877.0,5417.0,0
93344.0,93487.0,5131.0,0
93462.0,93960.0,4779.0,0
93577.0,94419.0,4424.0,0
93751.0,95100.0,4201.0,0
93907.0,95713.0,3949.0,0
94038.0,96234.0,3650.0,0
94146.0,96665.0,3303.0,0
94256.0,97105.0,2967.0,0
94411.0,97713.0,2741.0,0
94537.0,98214.0,2454.0,0
94662.0,98708.0,2169.0,0
95064.0,100234.0,2579.0,0
95268.0,101022.0,2519.0,0
95396.0,101528.0,2276.0,0
95490.0,101906.0,1950.0,0
95615.0,102397.0,1708.0,0
99524.0,116925.0,11780.0,0
99672.0,117494.0,11801.0,0
99751.0,117803.0,11634.0,0
99890.0,118338.0,11646.0,0
99997.0,118754.0,11574.0,0
100106.0,119178.0,11514.0,0
100267.0,119789.0,11615.0,0
100340.0,120081.0,11462.0,0
100445.0,120485.0,11408.0,0
100533.0,120829.0,11308.0,0
101141.0,123143.0,11828.0,0
101282.0,123677.0,11948.0,0
101390.0,124094.0,11966.0,0
101495.0,124495.0,11977.0,0
101595.0,124880.0,11980.0,0
101708.0,125312.0,12037.0,0
101837.0,125802.0,12163.0,0
101932.0,126167.0,12169.0,0
102035.0,126564.0,12215.0,0
102133.0,126938.0,12246.0,0
102221.0,127277.0,12244.0,0
102322.0,127660.0,12299.0,0
102405.0,127983.0,12293.0,0
102478.0,128266.0,12246.0,0
102553.0,128555.0,12209.0,0
102625.0,128836.0,12169.0,0
102693.0,129098.0,12109.0,0
102746.0,129311.0,11991.0,0
102817.0,129585.0,11953.0,0
102889.0,129865.0,11925.0,0
102971.0,130179.0,11949.0,0
103045.0,130462.0,11936.0,0
103134.0,130803.0,12007.0,0
103210.0,131094.0,12018.0,0
103303.0,131447.0,12121.0,0
103396.0,131797.0,12230.0,0
103454.0,132023.0,12163.0,0
103534.0,132330.0,12222.0,0
103610.0,132619.0,12260.0,0
103667.0,132842.0,12201.0,0
103724.0,133065.0,12145.0,0
103806.0,133376.0,12235.0,0
103885.0,133674.0,12311.0,0
103950.0,133925.0,12315.0,0
104001.0,134124.0,12236.0,0
104057.0,134344.0,12193.0,0
104118.0,134578.0,12179.0,0
104178.0,134811.0,12167.0,0
104236.0,135034.0,12141.0,0
104311.0,135317.0,12231.0,0
104363.0,135520.0,12174.0,0
104420.0,135741.0,12155.0,0
104459.0,135900.0,12014.0,0
104509.0,136095.0,11945.0,0
104596.0,136418.0,12148.0,0
104648.0,136620.0,12102.0,0
104697.0,136813.0,12040.0,0
104772.0,137096.0,12180.0,0
104825.0,137300.0,12151.0,0
104869.0,137473.0,12050.0,0
104934.0,137719.0,12125.0,0
105016.0,138022.0,12350.0,0
105062.0,138205.0,12283.0,0
105112.0,138399.0,12246.0,0
105177.0,138645.0,12350.0,0
105225.0,138831.0,12298.0,0
105282.0,139047.0,12333.0,0
105327.0,139226.0,12266.0,0
105368.0,139390.0,12153.0,0
105433.0,139632.0,12278.0,0
105483.0,139824.0,12255.0,0
105529.0,140004.0,12195.0,0
105588.0,140229.0,12289.0,0
105631.0,140398.0,12195.0,0
105673.0,140565.0,12092.0,0
105727.0,140770.0,12125.0,0
105776.0,140960.0,12112.0,0
105823.0,141144.0,12072.0,0
105870.0,141325.0,12024.0,0
105923.0,141527.0,12065.0,0
106001.0,141809.0,12468.0,0
106048.0,141989.0,12436.0,0
106102.0,142193.0,12523.0,0
106145.0,142363.0,12445.0,0
106186.0,142528.0,12339.0,0
106233.0,142707.0,12303.0,0
106276.0,142880.0,12230.0,0
106318.0,143045.0,12109.0,0
106362.0,143220.0,12038.0,0
106407.0,143396.0,11969.0,0
106454.0,143578.0,11942.0,0
106512.0,143790.0,12153.0,0
106561.0,143978.0,12189.0,0
106605.0,144150.0,12097.0,0
106651.0,144329.0,12056.0,0
106696.0,144505.0,11977.0,0
106751.0,144707.0,12198.0,0
106799.0,144890.0,12222.0,0
106843.0,145065.0,12138.0,0
106889.0,145244.0,12095.0,0
106939.0,145431.0,12204.0,0
106990.0,145618.0,12364.0,0
107137.0,146345.0,12318.0,0
107532.0,147584.0,12153.0,0
107594.0,147949.0,12259.0,0
107639.0,148102.0,12611.0,0
107713.0,148264.0,12689.0,0
107731.0,148454.0,12652.0,0
107776.0,148626.0,12710.0,0
107822.0,148799.0,12749.0,0
107918.0,149181.0,12544.0,0
107963.0,149347.0,12648.0,0
108012.0,149540.0,12555.0,0
108062.0,149739.0,12435.0,0
108111.0,149930.0,12385.0,0
108161.0,150123.0,12328.0,0
108209.0,150309.0,12321.0,0
108258.0,150500.0,12287.0,0
108311.0,150712.0,12156.0,0
108363.0,150916.0,12077.0,0
108414.0,151112.0,12049.0,0
108460.0,151284.0,12130.0,0
108503.0,151446.0,12251.0,0
108538.0,151564.0,12548.0,0
108584.0,151741.0,12594.0,0
108636.0,151939.0,12554.0,0
108690.0,152152.0,12468.0,0
108741.0,152351.0,12443.0,0
108801.0,152589.0,12285.0,0
108854.0,152796.0,12244.0,0
108909.0,153010.0,12186.0,0
108947.0,153145.0,12388.0,0
108994.0,153323.0,12448.0,0
109050.0,153544.0,12377.0,0
109107.0,153764.0,12318.0,0
109160.0,153969.0,12309.0,0
109200.0,154114.0,12470.0,0
109249.0,154301.0,12511.0,0
109299.0,154492.0,12544.0,0
109360.0,154731.0,12459.0,0
109413.0,154934.0,12468.0,0
109469.0,155152.0,12443.0,0
109528.0,155380.0,12402.0,0
109590.0,155621.0,12336.0,0
109645.0,155835.0,12336.0,0
109684.0,155976.0,12502.0,0
109740.0,156190.0,12507.0,0
109792.0,156388.0,12549.0,0
109860.0,156655.0,12450.0,0
109925.0,156907.0,12390.0,0
110000.0,157206.0,12245.0,0
110086.0,157548.0,12023.0,0
110133.0,157720.0,12141.0,0
110191.0,157942.0,12163.0,0
110264.0,158231.0,12066.0,0
110340.0,158527.0,11964.0,0
110391.0,158718.0,12055.0,0
110436.0,158884.0,12191.0,0
110503.0,159144.0,12166.0,0
110546.0,159303.0,12315.0,0
110614.0,159564.0,12295.0,0
110686.0,159842.0,12253.0,0
110768.0,160165.0,12148.0,0
110862.0,160534.0,11981.0,0
110963.0,160935.0,11778.0,0
111035.0,161212.0,11768.0,0
111116.0,161524.0,11714.0,0
111173.0,161741.0,11801.0,0
111236.0,161981.0,11858.0,0
111315.0,162285.0,11829.0,0
111423.0,162708.0,11646.0,0
111561.0,163256.0,11311.0,0
111697.0,163798.0,10999.0,0
111821.0,164285.0,10774.0,0
111889.0,164544.0,10849.0,0
111982.0,164902.0,10805.0,0
112162.0,165621.0,10331.0,0
112364.0,166425.0,9777.0,0
112566.0,167227.0,9251.0,0
112786.0,168105.0,8664.0,0
112992.0,168922.0,8171.0,0
113236.0,169894.0,7531.0,0
113562.0,171198.0,6556.0,0
113924.0,172648.0,5467.0,0
114287.0,174098.0,4423.0,0
114390.0,174486.0,4523.0,0
114471.0,174791.0,4712.0,0
114541.0,175046.0,4954.0,0
114624.0,175356.0,5142.0,0
114698.0,175629.0,5368.0,0
114762.0,175864.0,5631.0,0
114836.0,176134.0,5863.0,0
114914.0,176423.0,6077.0,0
114995.0,176726.0,6281.0,0
115074.0,177020.0,6495.0,0
115148.0,177290.0,6732.0,0
115234.0,177612.0,6927.0,0
115314.0,177909.0,7144.0,0
115385.0,178168.0,7397.0,0
115458.0,178439.0,7639.0,0
115551.0,178786.0,7824.0,0
115628.0,179071.0,8060.0,0
115701.0,179338.0,8313.0,0
115781.0,179634.0,8544.0,0
115853.0,179898.0,8802.0,0
115935.0,180200.0,9034.0,0
115992.0,180404.0,9338.0,0
116088.0,180766.0,9532.0,0
116165.0,181047.0,9786.0,0
116251.0,181367.0,10015.0,0
116333.0,181669.0,10260.0,0
116398.0,181904.0,10551.0,0
116485.0,182228.0,10786.0,0
116568.0,182533.0,11036.0,0
116650.0,182838.0,11290.0,0
116730.0,183132.0,11552.0,0
116835.0,183525.0,11759.0,0
116936.0,183901.0,11981.0,0
117040.0,184293.0,12198.0,0
117128.0,184616.0,12459.0,0
117161.0,184722.0,12840.0,0
117504.0,186059.0,12569.0,0
117692.0,186779.0,12643.0,0
117980.0,187892.0,12530.0,0
118128.0,188451.0,12713.0,0
118474.0,189791.0,12526.0,0
118725.0,190758.0,12541.0,0
118902.0,191427.0,12711.0,0
119143.0,192354.0,12775.0,0
119520.0,193809.0,12623.0,0
119686.0,194439.0,12853.0,0
120814.0,198846.0,11505.0,0
121030.0,199668.0,11715.0,0
121496.0,201466.0,11549.0,0
122443.0,205157.0,10679.0,0
123316.0,208548.0,9996.0,0
123900.0,210805.0,9795.0,0
126526.0,221023.0,7531.0,0
95965.0,-3117.0,652.0,0
96555.0,249.0,1665.0,0
97141.0,3586.0,2730.0,0
97362.0,4862.0,2757.0,0
97540.0,5900.0,2675.0,0
97645.0,6522.0,2377.0,0
97750.0,7144.0,2088.0,0
97826.0,7605.0,1713.0,0
97916.0,8144.0,1389.0,0
98024.0,8778.0,1128.0,0
98129.0,9403.0,872.0,0
98232.0,10012.0,613.0,0
98358.0,10747.0,443.0,0
98486.0,11496.0,294.0,0
98652.0,12458.0,299.0,0
98797.0,13302.0,241.0,0
98954.0,14207.0,240.0,0
99105.0,15085.0,235.0,0
99251.0,15927.0,220.0,0
99401.0,16798.0,241.0,0
99540.0,17601.0,228.0,0
99672.0,18369.0,202.0,0
99811.0,19174.0,217.0,0
99924.0,19827.0,128.0,0
100060.0,20618.0,159.0,0
100190.0,21366.0,170.0,0
100309.0,22058.0,148.0,0
100431.0,22762.0,148.0,0
100542.0,23410.0,112.0,0
100655.0,24064.0,92.0,0
100771.0,24737.0,101.0,0
100879.0,25362.0,79.0,0
100992.0,26015.0,93.0,0
101101.0,26643.0,95.0,0
101203.0,27239.0,78.0,0
101307.0,27840.0,77.0,0
101411.0,28439.0,83.0,0
101518.0,29055.0,118.0,0
101609.0,29586.0,77.0,0
101705.0,30142.0,71.0,0
101804.0,30716.0,94.0,0
101893.0,31233.0,66.0,0
101977.0,31722.0,15.0,0
102073.0,32275.0,45.0,0
102185.0,32917.0,186.0,0
102259.0,33347.0,95.0,0
102370.0,33982.0,252.0,0
102446.0,34427.0,196.0,0
102535.0,34941.0,231.0,0
102621.0,35439.0,256.0,0
102715.0,35978.0,342.0,0
102775.0,36331.0,199.0,0
102843.0,36727.0,115.0,0
102936.0,37264.0,227.0,0
103025.0,37774.0,314.0,0
103089.0,38148.0,221.0,0
103192.0,38733.0,434.0,0
103288.0,39278.0,605.0,0
103367.0,39735.0,660.0,0
103440.0,40157.0,671.0,0
103501.0,40516.0,595.0,0
103559.0,40854.0,489.0,0
103644.0,41340.0,623.0,0
103707.0,41707.0,576.0,0
103763.0,42038.0,474.0,0
103834.0,42445.0,504.0,0
103898.0,42819.0,486.0,0
103961.0,43183.0,456.0,0
104035.0,43609.0,542.0,0
104105.0,44008.0,590.0,0
104174.0,44409.0,651.0,0
104245.0,44813.0,725.0,0
104322.0,45255.0,884.0,0
104389.0,45635.0,932.0,0
104453.0,46004.0,967.0,0
104514.0,46358.0,979.0,0
104572.0,46698.0,968.0,0
104649.0,47132.0,1168.0,0
104708.0,47472.0,1174.0,0
104780.0,47879.0,1338.0,0
104850.0,48278.0,1498.0,0
104916.0,48654.0,1616.0,0
104982.0,49031.0,1748.0,0
105052.0,49427.0,1940.0,0
105116.0,49789.0,2062.0,0
105183.0,50169.0,2244.0,0
105246.0,50525.0,2374.0,0
105314.0,50908.0,2592.0,0
105374.0,51250.0,2711.0,0
105437.0,51605.0,2882.0,0
105498.0,51950.0,3037.0,0
105558.0,52292.0,3196.0,0
105616.0,52621.0,3330.0,0
105674.0,52950.0,3477.0,0
105735.0,53290.0,3675.0,0
105790.0,53604.0,3801.0,0
105845.0,53918.0,3939.0,0
105901.0,54231.0,4090.0,0
105956.0,54541.0,4245.0,0
106011.0,54853.0,4422.0,0
106068.0,55170.0,4641.0,0
106117.0,55449.0,4718.0,0
106171.0,55750.0,4905.0,0
106218.0,56021.0,4967.0,0
106269.0,56310.0,5131.0,0
106318.0,56588.0,5258.0,0
106370.0,56878.0,5466.0,0
106419.0,57152.0,5608.0,0
106466.0,57421.0,5744.0,0
106515.0,57696.0,5931.0,0
106561.0,57955.0,6042.0,0
106606.0,58210.0,6145.0,0
106652.0,58469.0,6291.0,0
106698.0,58725.0,6439.0,0
106743.0,58980.0,6609.0,0
106787.0,59228.0,6742.0,0
106831.0,59474.0,6887.0,0
106828.0,59722.0,6995.0,0
106915.0,59949.0,7065.0,0
106921.0,60193.0,7197.0,0
107001.0,60655.0,7350.0,0
107047.0,60882.0,7401.0,0
107118.0,61104.0,7478.0,0
107122.0,61338.0,7598.0,0
107404.0,62650.0,8158.0,0
107467.0,63080.0,8383.0,0
107529.0,63287.0,8462.0,0
107541.0,63499.0,8625.0,0
107578.0,63704.0,8758.0,0
107615.0,63915.0,8804.0,0
107651.0,64116.0,8951.0,0
107687.0,64319.0,9050.0,0
107722.0,64516.0,9200.0,0
107758.0,64716.0,9303.0,0
107793.0,64914.0,9407.0,0
107827.0,65110.0,9523.0,0
107863.0,65309.0,9600.0,0
107897.0,65504.0,9699.0,0
107931.0,65696.0,9810.0,0
107966.0,65893.0,9883.0,0
107999.0,66081.0,10007.0,0
108033.0,66270.0,10112.0,0
108067.0,66461.0,10200.0,0
108099.0,66636.0,10367.0,0
108132.0,66822.0,10468.0,0
108163.0,66997.0,10618.0,0
108197.0,67191.0,10673.0,0
108228.0,67364.0,10817.0,0
108261.0,67549.0,10904.0,0
108293.0,67731.0,11002.0,0
108323.0,67899.0,11150.0,0
108357.0,68088.0,11212.0,0
108385.0,68244.0,11392.0,0
108418.0,68434.0,11447.0,0
108449.0,68603.0,11572.0,0
108481.0,68785.0,11650.0,0
108513.0,68964.0,11739.0,0
108544.0,69144.0,11820.0,0
108578.0,69333.0,11875.0,0
108609.0,69512.0,11959.0,0
108642.0,69697.0,12026.0,0
108670.0,69850.0,12179.0,0
108699.0,70012.0,12305.0,0
108737.0,70237.0,12265.0,0
108778.0,70479.0,12190.0,0
108820.0,70726.0,12109.0,0
108865.0,70990.0,11993.0,0
108914.0,71281.0,11825.0,0
108959.0,71551.0,11716.0,0
108998.0,71774.0,11719.0,0
109042.0,72032.0,11652.0,0
109080.0,72249.0,11678.0,0
109121.0,72488.0,11662.0,0
109156.0,72688.0,11728.0,0
109192.0,72897.0,11779.0,0
109231.0,73120.0,11805.0,0
109260.0,73283.0,11948.0,0
109290.0,73444.0,12093.0,0
109334.0,73704.0,12054.0,0
109376.0,73946.0,12054.0,0
109414.0,74164.0,12100.0,0
109460.0,74433.0,12061.0,0
109506.0,74703.0,12026.0,0
109557.0,75000.0,11952.0,0
109605.0,75279.0,11914.0,0
109637.0,75458.0,12041.0,0
109678.0,75696.0,12077.0,0
109722.0,75950.0,12090.0,0
109778.0,76277.0,11998.0,0
109826.0,76556.0,11985.0,0
109861.0,76751.0,12098.0,0
109901.0,76980.0,12164.0,0
109950.0,77262.0,12160.0,0
110001.0,77562.0,12134.0,0
110066.0,77940.0,12009.0,0
110147.0,78424.0,11754.0,0
110197.0,78713.0,11765.0,0
110231.0,78906.0,11906.0,0
110278.0,79171.0,11955.0,0
110306.0,79324.0,12146.0,0
110351.0,79583.0,12208.0,0
110419.0,79983.0,12106.0,0
110465.0,80243.0,12175.0,0
110534.0,80648.0,12082.0,0
110766.0,81989.0,12093.0,0
110811.0,82248.0,12192.0,0
110888.0,82699.0,12093.0,0
110945.0,83029.0,12128.0,0
111019.0,83457.0,12069.0,0
111070.0,83747.0,12155.0,0
111138.0,84144.0,12142.0,0
111208.0,84550.0,12127.0,0
111285.0,84994.0,12083.0,0
111366.0,85470.0,12019.0,0
111457.0,86000.0,11916.0,0
111529.0,86415.0,11925.0,0
111621.0,86952.0,11836.0,0
111701.0,87416.0,11819.0,0
111779.0,87867.0,11822.0,0
111859.0,88336.0,11818.0,0
111938.0,88791.0,11834.0,0
112025.0,89294.0,11819.0,0
112105.0,89753.0,11847.0,0
112173.0,90142.0,11937.0,0
112260.0,90651.0,11942.0,0
112381.0,91353.0,11814.0,0
112482.0,91939.0,11783.0,0
112599.0,92625.0,11693.0,0
112677.0,93070.0,11783.0,0
112782.0,93680.0,11767.0,0
112883.0,94260.0,11783.0,0
113094.0,95484.0,11802.0,0
113257.0,96438.0,11610.0,0
113465.0,97658.0,11272.0,0
113748.0,99325.0,10685.0,0
114921.0,106303.0,6950.0,0
114973.0,106589.0,7308.0,0
115063.0,107095.0,7541.0,0
115148.0,107575.0,7795.0,0
115230.0,108036.0,8065.0,0
115304.0,108452.0,8365.0,0
115370.0,108815.0,8699.0,0
115451.0,109271.0,8986.0,0
115529.0,109709.0,9289.0,0
115595.0,110074.0,9633.0,0
115676.0,110526.0,9939.0,0
115757.0,110976.0,10250.0,0
115837.0,111425.0,10568.0,0
115908.0,111817.0,10916.0,0
116006.0,112371.0,11198.0,0
116096.0,112877.0,11508.0,0
116205.0,113492.0,11778.0,0
116285.0,113941.0,12126.0,0
116472.0,115020.0,12226.0,0
116738.0,116562.0,12163.0,0
116997.0,118063.0,12144.0,0
117201.0,119234.0,12274.0,0
117454.0,120696.0,12319.0,0
117853.0,123018.0,12087.0,0
118093.0,124404.0,12217.0,0
118672.0,127780.0,11711.0,0
118904.0,129111.0,11926.0,0
119479.0,132459.0,11533.0,0
119797.0,134298.0,11658.0,0
120420.0,137920.0,11294.0,0
93597.0,-2664.0,672.0,0
94310.0,679.0,1684.0,0
95017.0,3992.0,2749.0,0
95284.0,5260.0,2775.0,0
95501.0,6291.0,2693.0,0
95628.0,6908.0,2395.0,0
95756.0,7526.0,2105.0,0
95849.0,7983.0,1730.0,0
95959.0,8519.0,1406.0,0
96089.0,9148.0,1145.0,0
96217.0,9769.0,888.0,0
96343.0,10374.0,629.0,0
96495.0,11103.0,459.0,0
96650.0,11848.0,310.0,0
96851.0,12803.0,315.0,0
97027.0,13641.0,256.0,0
97216.0,14540.0,255.0,0
97400.0,15412.0,250.0,0
97577.0,16252.0,238.0,0
97758.0,17112.0,256.0,0
97926.0,17910.0,242.0,0
98088.0,18686.0,226.0,0
98255.0,19472.0,231.0,0
98390.0,20121.0,141.0,0
98556.0,20906.0,172.0,0
98713.0,21649.0,183.0,0
98857.0,22336.0,160.0,0
99004.0,23035.0,160.0,0
99141.0,23691.0,136.0,0
99276.0,24328.0,104.0,0
99415.0,24987.0,105.0,0
99546.0,25613.0,86.0,0
99686.0,26278.0,116.0,0
99814.0,26884.0,102.0,0
99941.0,27489.0,97.0,0
100066.0,28078.0,88.0,0
100191.0,28673.0,94.0,0
100318.0,29280.0,124.0,0
100431.0,29819.0,95.0,0
100547.0,30364.0,81.0,0
100667.0,30934.0,104.0,0
100773.0,31439.0,67.0,0
100877.0,31933.0,25.0,0
100993.0,32486.0,58.0,0
101128.0,33120.0,195.0,0
101217.0,33547.0,104.0,0
101351.0,34177.0,261.0,0
101444.0,34619.0,205.0,0
101551.0,35129.0,239.0,0
101656.0,35624.0,264.0,0
101769.0,36159.0,350.0,0
101842.0,36510.0,207.0,0
101924.0,36903.0,123.0,0
102037.0,37436.0,235.0,0
102145.0,37943.0,322.0,0
102222.0,38314.0,229.0,0
102346.0,38895.0,441.0,0
102462.0,39436.0,612.0,0
102558.0,39890.0,667.0,0
102646.0,40309.0,678.0,0
102720.0,40666.0,601.0,0
102790.0,41001.0,496.0,0
102893.0,41484.0,629.0,0
102969.0,41849.0,583.0,0
103038.0,42177.0,480.0,0
103123.0,42581.0,510.0,0
103201.0,42953.0,492.0,0
103277.0,43314.0,462.0,0
103367.0,43737.0,548.0,0
103450.0,44133.0,595.0,0
103535.0,44532.0,656.0,0
103620.0,44933.0,731.0,0
103714.0,45372.0,889.0,0
103794.0,45749.0,938.0,0
103871.0,46115.0,972.0,0
103945.0,46467.0,984.0,0
104016.0,46804.0,972.0,0
104109.0,47236.0,1173.0,0
104180.0,47573.0,1178.0,0
104266.0,47978.0,1342.0,0
104351.0,48374.0,1502.0,0
104431.0,48747.0,1620.0,0
104511.0,49121.0,1752.0,0
104595.0,49514.0,1944.0,0
104672.0,49874.0,2066.0,0
104753.0,50252.0,2247.0,0
104829.0,50605.0,2377.0,0
104911.0,50985.0,2596.0,0
104983.0,51325.0,2715.0,0
105059.0,51677.0,2885.0,0
105132.0,52020.0,3040.0,0
105205.0,52359.0,3199.0,0
105275.0,52686.0,3333.0,0
105345.0,53013.0,3480.0,0
105418.0,53351.0,3678.0,0
105485.0,53662.0,3803.0,0
105552.0,53974.0,3942.0,0
105619.0,54285.0,4093.0,0
105685.0,54593.0,4247.0,0
105751.0,54902.0,4424.0,0
105820.0,55217.0,4643.0,0
105879.0,55495.0,4720.0,0
105943.0,55794.0,4907.0,0
106000.0,56063.0,4969.0,0
106062.0,56350.0,5132.0,0
106122.0,56626.0,5259.0,0
106184.0,56914.0,5467.0,0
106243.0,57186.0,5610.0,0
106300.0,57453.0,5745.0,0
106359.0,57726.0,5932.0,0
106414.0,57983.0,6043.0,0
106468.0,58237.0,6146.0,0
106524.0,58493.0,6292.0,0
106579.0,58747.0,6440.0,0
106633.0,59001.0,6610.0,0
106686.0,59247.0,6743.0,0
106739.0,59492.0,6888.0,0
106840.0,59963.0,7066.0,0
106940.0,60430.0,7282.0,0
107085.0,61110.0,7472.0,0
107518.0,63067.0,8428.0,0
107596.0,63488.0,8624.0,0
107640.0,63692.0,8758.0,0
107684.0,63901.0,8803.0,0
107728.0,64101.0,8950.0,0
107771.0,64303.0,9049.0,0
107813.0,64495.0,9222.0,0
107856.0,64693.0,9331.0,0
107898.0,64888.0,9446.0,0
107941.0,65088.0,9522.0,0
107983.0,65286.0,9599.0,0
108025.0,65479.0,9698.0,0
108064.0,65664.0,9849.0,0
108108.0,65866.0,9882.0,0
108148.0,66052.0,10005.0,0
108188.0,66240.0,10111.0,0
108229.0,66430.0,10198.0,0
108267.0,66604.0,10366.0,0
108307.0,66789.0,10466.0,0
108345.0,66962.0,10617.0,0
108386.0,67155.0,10671.0,0
108423.0,67327.0,10815.0,0
108463.0,67511.0,10902.0,0
108502.0,67691.0,11000.0,0
108538.0,67858.0,11148.0,0
108578.0,68045.0,11210.0,0
108612.0,68200.0,11390.0,0
108652.0,68389.0,11445.0,0
108689.0,68557.0,11570.0,0
108728.0,68738.0,11648.0,0
108766.0,68915.0,11737.0,0
108804.0,69094.0,11818.0,0
108844.0,69282.0,11872.0,0
108882.0,69460.0,11957.0,0
108922.0,69644.0,12024.0,0
108955.0,69796.0,12177.0,0
108990.0,69956.0,12303.0,0
109037.0,70180.0,12262.0,0
109086.0,70420.0,12187.0,0
109137.0,70665.0,12106.0,0
109192.0,70927.0,11990.0,0
109251.0,71216.0,11822.0,0
109306.0,71484.0,11713.0,0
109353.0,71706.0,11716.0,0
109406.0,71962.0,11649.0,0
109452.0,72177.0,11675.0,0
109502.0,72415.0,11658.0,0
109544.0,72614.0,11725.0,0
109589.0,72821.0,11776.0,0
109635.0,73043.0,11801.0,0
109671.0,73204.0,11945.0,0
109705.0,73361.0,12094.0,0
109760.0,73622.0,12051.0,0
109810.0,73863.0,12050.0,0
109856.0,74080.0,12096.0,0
109912.0,74346.0,12058.0,0
109969.0,74622.0,12006.0,0
110030.0,74910.0,11947.0,0
110088.0,75186.0,11910.0,0
110126.0,75365.0,12037.0,0
110176.0,75600.0,12072.0,0
110230.0,75853.0,12086.0,0
110297.0,76177.0,11994.0,0
110355.0,76454.0,11981.0,0
110394.0,76632.0,12117.0,0
110446.0,76876.0,12159.0,0
110504.0,77155.0,12155.0,0
110567.0,77453.0,12130.0,0
110645.0,77829.0,12004.0,0
110744.0,78310.0,11748.0,0
110805.0,78597.0,11760.0,0
110846.0,78788.0,11901.0,0
110902.0,79052.0,11950.0,0
110936.0,79203.0,12141.0,0
110990.0,79460.0,12203.0,0
111073.0,79857.0,12100.0,0
111128.0,80116.0,12169.0,0
111212.0,80518.0,12076.0,0
111492.0,81850.0,12087.0,0
111547.0,82107.0,12185.0,0
111641.0,82555.0,12086.0,0
111710.0,82882.0,12121.0,0
111799.0,83308.0,12062.0,0
111860.0,83595.0,12149.0,0
111943.0,83989.0,12135.0,0
112028.0,84393.0,12119.0,0
112122.0,84846.0,12064.0,0
112214.0,85285.0,12031.0,0
112329.0,85833.0,11908.0,0
112416.0,86245.0,11917.0,0
112528.0,86778.0,11828.0,0
112625.0,87239.0,11811.0,0
112719.0,87687.0,11814.0,0
112817.0,88152.0,11810.0,0
112912.0,88604.0,11825.0,0
113017.0,89104.0,11810.0,0
113113.0,89559.0,11839.0,0
113196.0,89946.0,11928.0,0
113302.0,90451.0,11933.0,0
113448.0,91148.0,11805.0,0
113570.0,91730.0,11774.0,0
113713.0,92411.0,11683.0,0
113807.0,92854.0,11773.0,0
113934.0,93460.0,11757.0,0
114055.0,94035.0,11772.0,0
114152.0,94490.0,11878.0,0
114311.0,95251.0,11791.0,0
114509.0,96198.0,11600.0,0
114761.0,97409.0,11260.0,0
115105.0,99065.0,10673.0,0
116531.0,105995.0,6936.0,0
116594.0,106278.0,7294.0,0
116702.0,106781.0,7527.0,0
116804.0,107257.0,7781.0,0
116903.0,107715.0,8051.0,0
116993.0,108129.0,8351.0,0
117072.0,108489.0,8684.0,0
117170.0,108942.0,8971.0,0
117264.0,109377.0,9274.0,0
117343.0,109739.0,9618.0,0
117440.0,110188.0,9923.0,0
117537.0,110635.0,10235.0,0
117634.0,111080.0,10552.0,0
117719.0,111470.0,10901.0,0
117837.0,112020.0,11182.0,0
117946.0,112523.0,11491.0,0
118076.0,113133.0,11762.0,0
118173.0,113579.0,12109.0,0
118400.0,114651.0,12209.0,0
118722.0,116182.0,12146.0,0
119035.0,117672.0,12126.0,0
119281.0,118836.0,12256.0,0
119587.0,120287.0,12300.0,0
120071.0,122593.0,12068.0,0
120362.0,123970.0,12197.0,0
121063.0,127322.0,11690.0,0
121343.0,128643.0,11904.0,0
122040.0,131968.0,11511.0,0
122426.0,133794.0,11636.0,0
123180.0,137392.0,11269.0,0
83502.0,165393.0,177.0,0
84051.0,166847.0,217.0,0
84470.0,167953.0,94.0,0
84826.0,168891.0,-102.0,0
92331.0,188768.0,7550.0,0
93377.0,191539.0,8858.0,0
94066.0,193366.0,9600.0,0
94536.0,194610.0,9985.0,0
95083.0,196057.0,10539.0,0
95422.0,196955.0,10737.0,0
95736.0,197785.0,10904.0,0
96265.0,199187.0,11512.0,0
96663.0,200240.0,11890.0,0
96928.0,200942.0,12024.0,0
97235.0,201754.0,12259.0,0
97465.0,202363.0,12351.0,0
97621.0,202776.0,12297.0,0
97777.0,203187.0,12248.0,0
98035.0,203869.0,12434.0,0
98194.0,204290.0,12413.0,0
98353.0,204710.0,12398.0,0
98560.0,205258.0,12504.0,0
98788.0,205860.0,12670.0,0
98930.0,206236.0,12644.0,0
99088.0,206654.0,12662.0,0
99219.0,207000.0,12621.0,0
99329.0,207289.0,12530.0,0
99464.0,207647.0,12512.0,0
99555.0,207887.0,12382.0,0
99690.0,208243.0,12372.0,0
99905.0,208813.0,12590.0,0
100005.0,209077.0,12501.0,0
100096.0,209315.0,12387.0,0
100221.0,209645.0,12375.0,0
100374.0,210052.0,12455.0,0
100479.0,210327.0,12396.0,0
100640.0,210755.0,12515.0,0
100739.0,211015.0,12449.0,0
100896.0,211431.0,12573.0,0
101029.0,211782.0,12628.0,0
101174.0,212167.0,12732.0,0
101275.0,212434.0,12698.0,0
101363.0,212665.0,12621.0,0
101434.0,212854.0,12493.0,0
101592.0,213272.0,12670.0,0
101675.0,213489.0,12587.0,0
101796.0,213810.0,12648.0,0
101889.0,214055.0,12611.0,0
102027.0,214422.0,12752.0,0
102102.0,214620.0,12658.0,0
102252.0,215015.0,12856.0,0
102367.0,215320.0,12931.0,0
102445.0,215526.0,12861.0,0
102539.0,215774.0,12860.0,0
102611.0,215964.0,12771.0,0
102712.0,216231.0,12809.0,0
102797.0,216456.0,12783.0,0
102863.0,216631.0,12676.0,0
103000.0,216994.0,12892.0,0
103084.0,217216.0,12875.0,0
103152.0,217395.0,12783.0,0
103261.0,217682.0,12892.0,0
103335.0,217879.0,12839.0,0
103406.0,218066.0,12771.0,0
103499.0,218313.0,12819.0,0
103555.0,218460.0,12676.0,0
103623.0,218639.0,12596.0,0
103695.0,218827.0,12536.0,0
103772.0,219032.0,12513.0,0
103900.0,219370.0,12780.0,0
103992.0,219613.0,12853.0,0
104063.0,219802.0,12811.0,0
104121.0,219956.0,12690.0,0
104186.0,220126.0,12606.0,0
104281.0,220376.0,12717.0,0
104360.0,220587.0,12738.0,0
104416.0,220735.0,12605.0,0
104483.0,220909.0,12538.0,0
104558.0,221108.0,12538.0,0
104646.0,221341.0,12633.0,0
104711.0,221512.0,12562.0,0
104777.0,221686.0,12503.0,0
104900.0,222014.0,12896.0,0
104960.0,222173.0,12804.0,0
105047.0,222403.0,12930.0,0
105113.0,222577.0,12888.0,0
105180.0,222754.0,12858.0,0
105241.0,222914.0,12772.0,0
105304.0,223081.0,12707.0,0
105400.0,223335.0,12959.0,0
105469.0,223519.0,12965.0,0
105552.0,223739.0,13117.0,0
105613.0,223900.0,13050.0,0
105680.0,224077.0,13042.0,0
105750.0,224262.0,13075.0,0
105810.0,224420.0,12992.0,0
105871.0,224579.0,12912.0,0
105941.0,224766.0,12959.0,0
106007.0,224941.0,12960.0,0
106066.0,225096.0,12854.0,0
106133.0,225273.0,12868.0,0
106196.0,225438.0,12814.0,0
106260.0,225607.0,12782.0,0
106331.0,225797.0,12879.0,0
106395.0,225965.0,12850.0,0
106458.0,226131.0,12803.0,0
106522.0,226300.0,12777.0,0
106586.0,226470.0,12763.0,0
106648.0,226633.0,12681.0,0
106715.0,226809.0,12719.0,0
106779.0,226978.0,12690.0,0
106840.0,227141.0,12592.0,0
106905.0,227312.0,12586.0,0
106974.0,227494.0,12731.0,0
107038.0,227663.0,12698.0,0
107101.0,227830.0,12636.0,0
107164.0,227996.0,12546.0,0
107322.0,228527.0,12646.0,0
107424.0,228685.0,12782.0,0
107871.0,229866.0,12851.0,0
108036.0,230189.0,12835.0,0
108222.0,230722.0,12627.0,0
108262.0,230898.0,12680.0,0
108327.0,231070.0,12679.0,0
108395.0,231250.0,12609.0,0
108524.0,231589.0,12665.0,0
108629.0,231747.0,12651.0,0
108661.0,231951.0,12558.0,0
108730.0,232134.0,12508.0,0
108791.0,232296.0,12597.0,0
108859.0,232476.0,12570.0,0
108932.0,232667.0,12485.0,0
109000.0,232848.0,12471.0,0
109052.0,232985.0,12684.0,0
109121.0,233167.0,12664.0,0
109194.0,233359.0,12596.0,0
109263.0,233542.0,12580.0,0
109315.0,233682.0,12759.0,0
109385.0,233865.0,12745.0,0
109463.0,234072.0,12637.0,0
109536.0,234264.0,12598.0,0
109593.0,234414.0,12725.0,0
109665.0,234604.0,12700.0,0
109744.0,234814.0,12609.0,0
109824.0,235025.0,12521.0,0
109889.0,235196.0,12578.0,0
109961.0,235387.0,12571.0,0
110047.0,235615.0,12451.0,0
110131.0,235835.0,12363.0,0
110198.0,236014.0,12408.0,0
110260.0,236176.0,12503.0,0
110310.0,236311.0,12674.0,0
110363.0,236450.0,12827.0,0
110438.0,236650.0,12814.0,0
110526.0,236882.0,12719.0,0
110608.0,237098.0,12674.0,0
110678.0,237282.0,12713.0,0
110746.0,237463.0,12764.0,0
110835.0,237696.0,12689.0,0
110902.0,237874.0,12753.0,0
110990.0,238106.0,12692.0,0
111064.0,238304.0,12714.0,0
111114.0,238436.0,12883.0,0
111197.0,238655.0,12865.0,0
111296.0,238916.0,12760.0,0
111380.0,239137.0,12747.0,0
111462.0,239355.0,12745.0,0
111558.0,239609.0,12676.0,0
111653.0,239860.0,12619.0,0
111728.0,240058.0,12669.0,0
111832.0,240331.0,12583.0,0
111936.0,240606.0,12500.0,0
111995.0,240762.0,12635.0,0
112094.0,241025.0,12584.0,0
112195.0,241290.0,12536.0,0
112263.0,241471.0,12635.0,0
112343.0,241681.0,12685.0,0
112454.0,241975.0,12605.0,0
112546.0,242218.0,12611.0,0
112624.0,242426.0,12677.0,0
112748.0,242751.0,12566.0,0
112826.0,242960.0,12639.0,0
112926.0,243223.0,12632.0,0
113052.0,243554.0,12533.0,0
113135.0,243776.0,12598.0,0
113249.0,244077.0,12555.0,0
113362.0,244374.0,12523.0,0
113433.0,244563.0,12644.0,0
113587.0,244968.0,12480.0,0
113660.0,245163.0,12599.0,0
113788.0,245502.0,12537.0,0
113918.0,245843.0,12479.0,0
114001.0,246063.0,12577.0,0
114100.0,246326.0,12625.0,0
114221.0,246646.0,12610.0,0
114408.0,247139.0,12400.0,0
114602.0,247649.0,12183.0,0
114858.0,248325.0,11793.0,0
115168.0,249139.0,11271.0,0
115488.0,249983.0,10741.0,0
115875.0,251002.0,10048.0,0
116293.0,252101.0,9303.0,0
116741.0,253282.0,8508.0,0
117396.0,255006.0,7197.0,0
117943.0,256446.0,6223.0,0
118575.0,258110.0,5071.0,0
89265.0,86769.0,5285.0,0
89767.0,88441.0,5433.0,0
90174.0,89804.0,5460.0,0
90394.0,90551.0,5201.0,0
90574.0,91168.0,4887.0,0
90754.0,91787.0,4581.0,0
90925.0,92373.0,4267.0,0
91114.0,93019.0,3993.0,0
91257.0,93513.0,3644.0,0
91439.0,94136.0,3373.0,0
91601.0,94691.0,3073.0,0
91763.0,95248.0,2780.0,0
91928.0,95814.0,2500.0,0
92058.0,96266.0,2157.0,0
92204.0,96768.0,1850.0,0
92381.0,97370.0,1613.0,0
92535.0,97898.0,1337.0,0
92964.0,99320.0,1669.0,0
93218.0,100172.0,1641.0,0
93435.0,100902.0,1542.0,0
93532.0,101244.0,1177.0,0
93688.0,101777.0,954.0,0
93832.0,102270.0,708.0,0
94017.0,102896.0,569.0,0
98756.0,118240.0,11761.0,0
98859.0,118592.0,11635.0,0
98970.0,118967.0,11533.0,0
99136.0,119522.0,11583.0,0
99307.0,120090.0,11653.0,0
99430.0,120505.0,11607.0,0
99500.0,120749.0,11421.0,0
99596.0,121075.0,11308.0,0
100301.0,123409.0,11866.0,0
100423.0,123817.0,11871.0,0
100518.0,124140.0,11801.0,0
100683.0,124684.0,11954.0,0
100782.0,125017.0,11908.0,0
100872.0,125322.0,11838.0,0
101000.0,125749.0,11899.0,0
101143.0,126220.0,12015.0,0
101305.0,126753.0,12211.0,0
101420.0,127137.0,12255.0,0
101512.0,127447.0,12225.0,0
101604.0,127755.0,12198.0,0
101712.0,128114.0,12235.0,0
101801.0,128414.0,12210.0,0
101884.0,128694.0,12166.0,0
101988.0,129041.0,12208.0,0
102069.0,129313.0,12164.0,0
102137.0,129547.0,12077.0,0
102206.0,129782.0,11992.0,0
102277.0,130023.0,11918.0,0
102359.0,130299.0,11894.0,0
102432.0,130545.0,11833.0,0
102548.0,130928.0,11967.0,0
102640.0,131235.0,12002.0,0
102732.0,131540.0,12040.0,0
102791.0,131742.0,11937.0,0
102914.0,132143.0,12129.0,0
103005.0,132448.0,12188.0,0
103098.0,132756.0,12258.0,0
103163.0,132976.0,12200.0,0
103249.0,133260.0,12244.0,0
103319.0,133495.0,12216.0,0
103380.0,133704.0,12148.0,0
103477.0,134024.0,12270.0,0
103556.0,134286.0,12302.0,0
103612.0,134479.0,12217.0,0
103687.0,134729.0,12237.0,0
103741.0,134913.0,12139.0,0
103819.0,135171.0,12182.0,0
103874.0,135359.0,12096.0,0
103964.0,135656.0,12224.0,0
104023.0,135857.0,12169.0,0
104094.0,136092.0,12188.0,0
104142.0,136259.0,12067.0,0
104193.0,136434.0,11964.0,0
104273.0,136698.0,12053.0,0
104348.0,136946.0,12118.0,0
104407.0,137146.0,12076.0,0
104488.0,137411.0,12192.0,0
104548.0,137613.0,12164.0,0
104601.0,137796.0,12092.0,0
104664.0,138005.0,12087.0,0
104767.0,138335.0,12399.0,0
104816.0,138505.0,12306.0,0
104873.0,138696.0,12270.0,0
104944.0,138931.0,12358.0,0
104997.0,139112.0,12299.0,0
105063.0,139328.0,12345.0,0
105115.0,139505.0,12279.0,0
105160.0,139662.0,12149.0,0
105235.0,139906.0,12296.0,0
105292.0,140098.0,12284.0,0
105346.0,140282.0,12245.0,0
105409.0,140490.0,12294.0,0
105457.0,140654.0,12191.0,0
105508.0,140831.0,12128.0,0
105567.0,141027.0,12144.0,0
105619.0,141204.0,12085.0,0
105676.0,141395.0,12085.0,0
105732.0,141581.0,12068.0,0
105788.0,141771.0,12072.0,0
105879.0,142054.0,12516.0,0
105928.0,142222.0,12437.0,0
105987.0,142415.0,12486.0,0
106038.0,142590.0,12439.0,0
106084.0,142749.0,12305.0,0
106135.0,142923.0,12252.0,0
106185.0,143093.0,12170.0,0
106235.0,143265.0,12099.0,0
106285.0,143436.0,12011.0,0
106337.0,143612.0,11953.0,0
106397.0,143810.0,12066.0,0
106455.0,144001.0,12140.0,0
106509.0,144181.0,12128.0,0
106560.0,144356.0,12067.0,0
106612.0,144531.0,12008.0,0
106641.0,144721.0,12016.0,0
106728.0,144909.0,12213.0,0
106758.0,145090.0,12142.0,0
106832.0,145262.0,12126.0,0
106884.0,145438.0,12065.0,0
106930.0,145635.0,12365.0,0
107026.0,145989.0,12260.0,0
107101.0,146159.0,12186.0,0
107473.0,147407.0,12189.0,0
107627.0,147744.0,12224.0,0
107632.0,147931.0,12358.0,0
107683.0,148085.0,12671.0,0
107805.0,148432.0,12651.0,0
107839.0,148606.0,12729.0,0
107913.0,148774.0,12731.0,0
107946.0,148967.0,12650.0,0
108000.0,149149.0,12613.0,0
108052.0,149324.0,12627.0,0
108109.0,149520.0,12504.0,0
108165.0,149712.0,12423.0,0
108222.0,149904.0,12354.0,0
108278.0,150094.0,12306.0,0
108330.0,150267.0,12359.0,0
108390.0,150475.0,12226.0,0
108452.0,150687.0,12086.0,0
108507.0,150872.0,12095.0,0
108563.0,151061.0,12086.0,0
108606.0,151190.0,12352.0,0
108650.0,151328.0,12560.0,0
108703.0,151503.0,12604.0,0
108761.0,151702.0,12553.0,0
108823.0,151911.0,12465.0,0
108880.0,152102.0,12456.0,0
108945.0,152328.0,12325.0,0
109009.0,152546.0,12234.0,0
109063.0,152726.0,12279.0,0
109109.0,152871.0,12441.0,0
109167.0,153064.0,12442.0,0
109232.0,153286.0,12360.0,0
109296.0,153506.0,12289.0,0
109350.0,153683.0,12353.0,0
109393.0,153816.0,12541.0,0
109455.0,154025.0,12513.0,0
109513.0,154220.0,12526.0,0
109581.0,154451.0,12447.0,0
109640.0,154648.0,12464.0,0
109709.0,154882.0,12390.0,0
109780.0,155122.0,12310.0,0
109839.0,155322.0,12334.0,0
109883.0,155459.0,12505.0,0
109949.0,155682.0,12478.0,0
110002.0,155857.0,12561.0,0
110076.0,156106.0,12484.0,0
110157.0,156386.0,12347.0,0
110241.0,156673.0,12204.0,0
110323.0,156951.0,12091.0,0
110377.0,157129.0,12186.0,0
110446.0,157361.0,12177.0,0
110521.0,157611.0,12135.0,0
110611.0,157919.0,11991.0,0
110651.0,158047.0,12191.0,0
110720.0,158277.0,12201.0,0
110793.0,158522.0,12187.0,0
110859.0,158739.0,12228.0,0
110942.0,159021.0,12160.0,0
111040.0,159356.0,12011.0,0
111139.0,159695.0,11866.0,0
111235.0,160021.0,11751.0,0
111319.0,160303.0,11716.0,0
111422.0,160655.0,11576.0,0
111495.0,160897.0,11614.0,0
111551.0,161079.0,11745.0,0
111613.0,161283.0,11845.0,0
111703.0,161587.0,11801.0,0
111800.0,161915.0,11729.0,0
111895.0,162235.0,11678.0,0
111995.0,162574.0,11606.0,0
112087.0,162880.0,11587.0,0
112180.0,163193.0,11564.0,0
112311.0,163641.0,11373.0,0
112519.0,164361.0,10848.0,0
112735.0,165111.0,10312.0,0
112848.0,165490.0,10253.0,0
112936.0,165784.0,10305.0,0
113086.0,166294.0,10105.0,0
113295.0,167014.0,9674.0,0
113553.0,167905.0,9070.0,0
113840.0,168899.0,8378.0,0
114161.0,170012.0,7585.0,0
114457.0,171033.0,6926.0,0
114747.0,172033.0,6320.0,0
114997.0,172889.0,5893.0,0
115354.0,174124.0,5099.0,0
115538.0,174745.0,4961.0,0
115628.0,175038.0,5163.0,0
115704.0,175279.0,5416.0,0
115795.0,175576.0,5617.0,0
115889.0,175878.0,5815.0,0
115971.0,176143.0,6049.0,0
116043.0,176371.0,6319.0,0
116130.0,176654.0,6539.0,0
116224.0,176958.0,6743.0,0
116298.0,177195.0,7008.0,0
116387.0,177481.0,7231.0,0
116464.0,177728.0,7488.0,0
116548.0,177996.0,7729.0,0
116644.0,178309.0,7936.0,0
116724.0,178566.0,8190.0,0
116813.0,178852.0,8422.0,0
116890.0,179098.0,8687.0,0
116981.0,179389.0,8920.0,0
117073.0,179687.0,9151.0,0
117151.0,179935.0,9419.0,0
117246.0,180246.0,9645.0,0
117333.0,180523.0,9897.0,0
117421.0,180806.0,10146.0,0
117534.0,181177.0,10340.0,0
117617.0,181441.0,10608.0,0
117718.0,181769.0,10837.0,0
117809.0,182062.0,11091.0,0
117891.0,182322.0,11369.0,0
117998.0,182670.0,11595.0,0
118098.0,182992.0,11840.0,0
118177.0,183246.0,12129.0,0
118281.0,183582.0,12372.0,0
118530.0,184417.0,12341.0,0
118852.0,185501.0,12190.0,0
119108.0,186359.0,12180.0,0
119480.0,187615.0,11977.0,0
119882.0,188973.0,11747.0,0
120196.0,190025.0,11696.0,0
120516.0,191099.0,11654.0,0
120884.0,192334.0,11555.0,0
121340.0,193871.0,11338.0,0
122238.0,196919.0,10460.0,0
122567.0,198017.0,10513.0,0
123303.0,200507.0,9980.0,0
125285.0,207250.0,7689.0,0
93552.0,-2874.0,566.0,0
94179.0,69.0,1368.0,0
94961.0,3732.0,2611.0,0
95273.0,5209.0,2747.0,0
95419.0,5913.0,2483.0,0
95556.0,6574.0,2206.0,0
95695.0,7245.0,1943.0,0
95794.0,7729.0,1580.0,0
95913.0,8308.0,1279.0,0
96016.0,8813.0,940.0,0
96133.0,9377.0,643.0,0
96267.0,10026.0,407.0,0
96439.0,10848.0,293.0,0
96778.0,12439.0,701.0,0
96948.0,13252.0,618.0,0
97125.0,14095.0,568.0,0
97306.0,14952.0,543.0,0
97386.0,15348.0,204.0,0
97741.0,17033.0,197.0,0
97922.0,17894.0,230.0,0
98234.0,19379.0,158.0,0
98404.0,20183.0,190.0,0
98559.0,20921.0,185.0,0
98711.0,21641.0,177.0,0
98850.0,22306.0,135.0,0
98998.0,23005.0,135.0,0
99269.0,24298.0,78.0,0
100062.0,28064.0,74.0,0
100185.0,28645.0,66.0,0
100655.0,30880.0,46.0,0
100887.0,31979.0,76.0,0
101095.0,32970.0,23.0,0
101207.0,33502.0,52.0,0
101303.0,33961.0,3.0,0
101408.0,34456.0,6.0,0
101513.0,34955.0,23.0,0
101608.0,35408.0,-7.0,0
101715.0,35915.0,37.0,0
101811.0,36371.0,26.0,0
101905.0,36819.0,12.0,0
101995.0,37248.0,-19.0,0
102081.0,37658.0,-71.0,0
102183.0,38141.0,-12.0,0
102288.0,38633.0,67.0,0
102373.0,39038.0,31.0,0
102464.0,39469.0,41.0,0
102568.0,39958.0,148.0,0
102678.0,40477.0,310.0,0
102748.0,40815.0,203.0,0
102819.0,41153.0,99.0,0
102901.0,41543.0,83.0,0
102982.0,41931.0,72.0,0
103065.0,42324.0,73.0,0
103139.0,42680.0,19.0,0
103213.0,43030.0,-39.0,0
103301.0,43448.0,26.0,0
103384.0,43839.0,54.0,0
103460.0,44200.0,33.0,0
103547.0,44611.0,113.0,0
103623.0,44974.0,109.0,0
103709.0,45376.0,190.0,0
103796.0,45788.0,302.0,0
103888.0,46218.0,463.0,0
103954.0,46535.0,395.0,0
104033.0,46905.0,448.0,0
104126.0,47338.0,651.0,0
104214.0,47751.0,822.0,0
104295.0,48132.0,934.0,0
104379.0,48522.0,1078.0,0
104464.0,48919.0,1254.0,0
104551.0,49324.0,1462.0,0
104633.0,49705.0,1629.0,0
104713.0,50080.0,1790.0,0
104795.0,50461.0,1984.0,0
104871.0,50818.0,2126.0,0
104950.0,51184.0,2310.0,0
105028.0,51547.0,2497.0,0
105105.0,51905.0,2689.0,0
105179.0,52251.0,2857.0,0
105253.0,52592.0,3028.0,0
105327.0,52936.0,3222.0,0
105399.0,53273.0,3410.0,0
105467.0,53590.0,3544.0,0
105531.0,53890.0,3633.0,0
105599.0,54207.0,3793.0,0
105662.0,54502.0,3889.0,0
105737.0,54843.0,4182.0,0
105803.0,55151.0,4362.0,0
105863.0,55431.0,4437.0,0
105926.0,55724.0,4584.0,0
105989.0,56016.0,4744.0,0
106052.0,56311.0,4936.0,0
106114.0,56596.0,5102.0,0
106176.0,56883.0,5300.0,0
106235.0,57158.0,5452.0,0
106296.0,57439.0,5656.0,0
106353.0,57703.0,5784.0,0
106408.0,57958.0,5875.0,0
106463.0,58216.0,5998.0,0
106522.0,58486.0,6232.0,0
106576.0,58737.0,6350.0,0
106630.0,58990.0,6511.0,0
106683.0,59237.0,6644.0,0
106737.0,59483.0,6799.0,0
106788.0,59722.0,6896.0,0
106838.0,59956.0,6966.0,0
106889.0,60195.0,7128.0,0
106912.0,60432.0,7214.0,0
107338.0,62212.0,8010.0,0
107369.0,62434.0,8084.0,0
107415.0,62648.0,8198.0,0
107551.0,63280.0,8522.0,0
107620.0,63477.0,8716.0,0
107640.0,63690.0,8798.0,0
107684.0,63894.0,8903.0,0
107727.0,64098.0,8990.0,0
107771.0,64298.0,9099.0,0
107939.0,65076.0,9611.0,0
107980.0,65269.0,9718.0,0
108022.0,65464.0,9807.0,0
108103.0,65840.0,10039.0,0
108144.0,66028.0,10143.0,0
108186.0,66224.0,10199.0,0
108225.0,66408.0,10316.0,0
108263.0,66580.0,10483.0,0
108302.0,66762.0,10593.0,0
108341.0,66943.0,10705.0,0
108379.0,67117.0,10837.0,0
108416.0,67288.0,10980.0,0
108453.0,67456.0,11125.0,0
108492.0,67637.0,11213.0,0
108530.0,67814.0,11312.0,0
108568.0,67991.0,11413.0,0
108606.0,68168.0,11505.0,0
108642.0,68331.0,11647.0,0
108679.0,68503.0,11752.0,0
108717.0,68679.0,11839.0,0
108754.0,68849.0,11946.0,0
108792.0,69026.0,12027.0,0
108831.0,69209.0,12090.0,0
108867.0,69375.0,12202.0,0
108900.0,69530.0,12343.0,0
108943.0,69734.0,12345.0,0
108997.0,69995.0,12200.0,0
109049.0,70245.0,12095.0,0
109100.0,70493.0,12002.0,0
109154.0,70751.0,11893.0,0
109205.0,71000.0,11815.0,0
109257.0,71247.0,11749.0,0
109312.0,71512.0,11649.0,0
109360.0,71743.0,11634.0,0
109402.0,71937.0,11703.0,0
109447.0,72152.0,11729.0,0
109488.0,72342.0,11811.0,0
109540.0,72592.0,11770.0,0
109584.0,72799.0,11820.0,0
109621.0,72970.0,11944.0,0
109656.0,73126.0,12095.0,0
109746.0,73551.0,12182.0,0
109804.0,73829.0,12111.0,0
109867.0,74133.0,12001.0,0
109922.0,74396.0,11971.0,0
110005.0,74782.0,12161.0,0
110064.0,75067.0,12105.0,0
110193.0,75686.0,11938.0,0
110237.0,75891.0,12027.0,0
110277.0,76073.0,12152.0,0
110326.0,76305.0,12203.0,0
110456.0,76927.0,12086.0,0
110539.0,77328.0,11912.0,0
110628.0,77762.0,11703.0,0
110679.0,78000.0,11772.0,0
110723.0,78203.0,11891.0,0
110760.0,78374.0,12052.0,0
110827.0,78690.0,12026.0,0
110886.0,78971.0,12051.0,0
110942.0,79235.0,12102.0,0
111002.0,79517.0,12134.0,0
111059.0,79788.0,12184.0,0
111125.0,80103.0,12184.0,0
111175.0,80336.0,12286.0,0
111249.0,80687.0,12257.0,0
111558.0,82161.0,12128.0,0
111606.0,82384.0,12265.0,0
111689.0,82778.0,12228.0,0
111767.0,83147.0,12224.0,0
111839.0,83490.0,12253.0,0
111926.0,83904.0,12217.0,0
112044.0,84471.0,12044.0,0
112300.0,85686.0,12041.0,0
112400.0,86164.0,11990.0,0
112499.0,86636.0,11952.0,0
112599.0,87111.0,11921.0,0
112699.0,87589.0,11897.0,0
112788.0,88008.0,11930.0,0
112867.0,88382.0,12006.0,0
112976.0,88903.0,11970.0,0
113101.0,89497.0,11887.0,0
113216.0,90048.0,11850.0,0
113333.0,90601.0,11820.0,0
113432.0,91069.0,11863.0,0
113541.0,91587.0,11879.0,0
113662.0,92163.0,11861.0,0
113775.0,92701.0,11881.0,0
113902.0,93306.0,11864.0,0
114030.0,93913.0,11855.0,0
114125.0,94359.0,11966.0,0
114276.0,95077.0,11905.0,0
114407.0,95700.0,11918.0,0
114582.0,96533.0,11811.0,0
114812.0,97639.0,11551.0,0
115380.0,100388.0,10322.0,0
116504.0,105838.0,7555.0,0
116541.0,105997.0,7981.0,0
116623.0,106376.0,8282.0,0
116735.0,106898.0,8505.0,0
116893.0,107645.0,8614.0,0
117029.0,108280.0,8795.0,0
117100.0,108602.0,9149.0,0
117175.0,108948.0,9493.0,0
117285.0,109458.0,9759.0,0
117373.0,109861.0,10083.0,0
117464.0,110280.0,10404.0,0
117553.0,110689.0,10735.0,0
117678.0,111274.0,10990.0,0
117772.0,111706.0,11322.0,0
117914.0,112370.0,11558.0,0
118394.0,114670.0,11108.0,0
118671.0,115983.0,11112.0,0
118869.0,116918.0,11292.0,0
119153.0,118265.0,11325.0,0
119381.0,119340.0,11486.0,0
120196.0,123249.0,10606.0,0
121353.0,128801.0,9203.0,0
121574.0,129838.0,9505.0,0
121816.0,130976.0,9788.0,0
124816.0,145358.0,6488.0,0
125517.0,148700.0,6253.0,0
89595.0,186282.0,4987.0,0
90520.0,188490.0,5929.0,0
91578.0,191012.0,7142.0,0
92222.0,192546.0,7718.0,0
93018.0,194445.0,8592.0,0
93440.0,195448.0,8855.0,0
93953.0,196672.0,9306.0,0
94314.0,197532.0,9507.0,0
94785.0,198656.0,9932.0,0
95409.0,200143.0,10671.0,0
95785.0,201038.0,10972.0,0
96219.0,202073.0,11408.0,0
96463.0,202654.0,11490.0,0
96824.0,203514.0,11822.0,0
97009.0,203956.0,11812.0,0
97314.0,204682.0,12062.0,0
97524.0,205182.0,12126.0,0
97760.0,205743.0,12256.0,0
97984.0,206279.0,12375.0,0
98199.0,206790.0,12483.0,0
98383.0,207229.0,12533.0,0
98538.0,207597.0,12522.0,0
98689.0,207956.0,12510.0,0
98822.0,208274.0,12462.0,0
98947.0,208571.0,12398.0,0
99160.0,209079.0,12561.0,0
99292.0,209393.0,12527.0,0
99399.0,209647.0,12435.0,0
99511.0,209913.0,12360.0,0
99674.0,210302.0,12425.0,0
99775.0,210541.0,12329.0,0
99986.0,211045.0,12543.0,0
100102.0,211320.0,12500.0,0
100215.0,211588.0,12453.0,0
100388.0,212002.0,12589.0,0
100525.0,212328.0,12625.0,0
100636.0,212592.0,12590.0,0
100744.0,212849.0,12551.0,0
100833.0,213059.0,12453.0,0
100948.0,213334.0,12443.0,0
101123.0,213750.0,12633.0,0
101234.0,214015.0,12624.0,0
101347.0,214284.0,12626.0,0
101483.0,214607.0,12711.0,0
101581.0,214841.0,12673.0,0
101694.0,215112.0,12694.0,0
101832.0,215440.0,12808.0,0
101951.0,215723.0,12861.0,0
102043.0,215941.0,12818.0,0
102147.0,216190.0,12828.0,0
102256.0,216449.0,12858.0,0
102353.0,216680.0,12850.0,0
102442.0,216891.0,12810.0,0
102514.0,217063.0,12705.0,0
102651.0,217389.0,12874.0,0
102739.0,217598.0,12843.0,0
102840.0,217839.0,12874.0,0
102922.0,218033.0,12821.0,0
103007.0,218236.0,12788.0,0
103101.0,218461.0,12800.0,0
103183.0,218654.0,12754.0,0
103253.0,218822.0,12657.0,0
103322.0,218985.0,12553.0,0
103409.0,219192.0,12539.0,0
103512.0,219439.0,12618.0,0
103645.0,219756.0,12861.0,0
103727.0,219950.0,12838.0,0
103795.0,220113.0,12744.0,0
103859.0,220265.0,12624.0,0
103943.0,220463.0,12615.0,0
104053.0,220727.0,12774.0,0
104120.0,220886.0,12678.0,0
104194.0,221061.0,12621.0,0
104263.0,221226.0,12537.0,0
104362.0,221462.0,12651.0,0
104433.0,221630.0,12581.0,0
104504.0,221799.0,12512.0,0
104625.0,222087.0,12802.0,0
104713.0,222297.0,12869.0,0
104794.0,222490.0,12892.0,0
104873.0,222679.0,12907.0,0
104944.0,222848.0,12858.0,0
105013.0,223012.0,12791.0,0
105078.0,223165.0,12687.0,0
105164.0,223372.0,12777.0,0
105259.0,223597.0,12946.0,0
105350.0,223814.0,13098.0,0
105424.0,223990.0,13098.0,0
105492.0,224152.0,13042.0,0
105574.0,224348.0,13133.0,0
105636.0,224495.0,13012.0,0
105704.0,224658.0,12960.0,0
105776.0,224829.0,12949.0,0
105848.0,225000.0,12940.0,0
105916.0,225162.0,12883.0,0
105987.0,225330.0,12858.0,0
106058.0,225499.0,12843.0,0
106127.0,225664.0,12801.0,0
106202.0,225841.0,12840.0,0
106274.0,226015.0,12860.0,0
106343.0,226178.0,12813.0,0
106414.0,226346.0,12797.0,0
106484.0,226514.0,12783.0,0
106552.0,226675.0,12710.0,0
106622.0,226841.0,12679.0,0
106694.0,227012.0,12690.0,0
106761.0,227172.0,12592.0,0
106831.0,227339.0,12556.0,0
106908.0,227523.0,12760.0,0
106977.0,227687.0,12697.0,0
107008.0,227867.0,12621.0,0
107116.0,228018.0,12586.0,0
107186.0,228183.0,12508.0,0
107216.0,228368.0,12437.0,0
107442.0,228873.0,12692.0,0
107843.0,229692.0,12563.0,0
107898.0,229854.0,12861.0,0
107959.0,230024.0,12870.0,0
108120.0,230354.0,12793.0,0
108176.0,230540.0,12667.0,0
108353.0,230857.0,12706.0,0
108432.0,231031.0,12632.0,0
108464.0,231227.0,12570.0,0
108536.0,231398.0,12572.0,0
108604.0,231559.0,12655.0,0
108754.0,231916.0,12549.0,0
108826.0,232087.0,12557.0,0
108894.0,232249.0,12627.0,0
108972.0,232435.0,12550.0,0
109051.0,232624.0,12466.0,0
109118.0,232784.0,12550.0,0
109181.0,232934.0,12685.0,0
109258.0,233117.0,12645.0,0
109338.0,233306.0,12577.0,0
109403.0,233462.0,12677.0,0
109472.0,233625.0,12740.0,0
109549.0,233810.0,12707.0,0
109635.0,234014.0,12598.0,0
109703.0,234175.0,12676.0,0
109775.0,234347.0,12706.0,0
109861.0,234553.0,12614.0,0
109951.0,234765.0,12504.0,0
110014.0,234915.0,12627.0,0
110097.0,235113.0,12579.0,0
110189.0,235333.0,12466.0,0
110274.0,235534.0,12423.0,0
110360.0,235740.0,12372.0,0
110425.0,235894.0,12484.0,0
110477.0,236019.0,12682.0,0
110535.0,236157.0,12833.0,0
110621.0,236363.0,12790.0,0
110714.0,236583.0,12712.0,0
110800.0,236788.0,12683.0,0
110878.0,236973.0,12711.0,0
110968.0,237187.0,12668.0,0
111034.0,237344.0,12774.0,0
111119.0,237548.0,12762.0,0
111212.0,237768.0,12717.0,0
111289.0,237950.0,12765.0,0
111362.0,238125.0,12832.0,0
111448.0,238331.0,12830.0,0
111556.0,238588.0,12722.0,0
111635.0,238776.0,12769.0,0
111734.0,239011.0,12721.0,0
111848.0,239282.0,12605.0,0
111930.0,239476.0,12651.0,0
112024.0,239702.0,12637.0,0
112148.0,239997.0,12496.0,0
112231.0,240193.0,12549.0,0
112311.0,240385.0,12613.0,0
112434.0,240676.0,12499.0,0
112507.0,240849.0,12602.0,0
112577.0,241017.0,12715.0,0
112701.0,241313.0,12610.0,0
112806.0,241561.0,12594.0,0
112872.0,241719.0,12730.0,0
113000.0,242025.0,12628.0,0
113119.0,242308.0,12571.0,0
113187.0,242470.0,12706.0,0
113346.0,242846.0,12517.0,0
113448.0,243091.0,12536.0,0
113542.0,243314.0,12590.0,0
113675.0,243632.0,12511.0,0
113791.0,243907.0,12500.0,0
113905.0,244178.0,12501.0,0
114000.0,244404.0,12567.0,0
114104.0,244653.0,12605.0,0
114229.0,244950.0,12585.0,0
114337.0,245207.0,12622.0,0
114465.0,245512.0,12602.0,0
114599.0,245831.0,12570.0,0
114796.0,246299.0,12364.0,0
114997.0,246777.0,12158.0,0
115279.0,247447.0,11739.0,0
115568.0,248132.0,11323.0,0
115897.0,248913.0,10817.0,0
116238.0,249724.0,10303.0,0
116665.0,250738.0,9589.0,0
117230.0,252079.0,8554.0,0
117710.0,253221.0,7773.0,0
118348.0,254735.0,6638.0,0
119192.0,256738.0,5049.0,0
91776.0,-270.0,1648.0,0
91865.0,106.0,1143.0,0
92092.0,1029.0,932.0,0
92284.0,1814.0,660.0,0
92988.0,4620.0,1526.0,0
93213.0,5531.0,1373.0,0
93362.0,6144.0,1063.0,0
93490.0,6674.0,711.0,0
93679.0,7440.0,507.0,0
93890.0,8297.0,371.0,0
94113.0,9201.0,280.0,0
94374.0,10251.0,297.0,0
94627.0,11272.0,314.0,0
94857.0,12199.0,288.0,0
95304.0,13980.0,858.0,0
95474.0,14670.0,711.0,0
95645.0,15366.0,580.0,0
95966.0,16649.0,882.0,0
96158.0,17426.0,840.0,0
96320.0,18082.0,721.0,0
96495.0,18791.0,653.0,0
96635.0,19359.0,487.0,0
96752.0,19841.0,262.0,0
96929.0,20553.0,228.0,0
97163.0,21490.0,390.0,0
97301.0,22052.0,258.0,0
97489.0,22808.0,300.0,0
97615.0,23322.0,147.0,0
97775.0,23968.0,117.0,0
97940.0,24634.0,116.0,0
98090.0,25239.0,72.0,0
98252.0,25892.0,82.0,0
98424.0,26585.0,142.0,0
98576.0,27196.0,138.0,0
98719.0,27776.0,114.0,0
98855.0,28326.0,70.0,0
99012.0,28957.0,118.0,0
99144.0,29489.0,75.0,0
99286.0,30060.0,83.0,0
99427.0,30628.0,98.0,0
99557.0,31153.0,77.0,0
99679.0,31649.0,34.0,0
99812.0,32184.0,41.0,0
99944.0,32716.0,56.0,0
100064.0,33200.0,25.0,0
100185.0,33689.0,8.0,0
100312.0,34201.0,27.0,0
100428.0,34667.0,0.0,0
100546.0,35144.0,-6.0,0
100670.0,35643.0,24.0,0
100776.0,36073.0,-24.0,0
100891.0,36538.0,-20.0,0
101012.0,37024.0,20.0,0
101119.0,37455.0,-4.0,0
